ply
format ascii 1.0
element vertex 1836
property float x
property float y
property float z
property float intensity
end_header
604.66 328.25 163.32 0.00
614.82 333.80 132.07 0.01
617.84 337.21 111.61 0.02
616.34 339.25 98.11 0.02
611.05 340.08 90.75 0.02
601.51 339.53 90.54 0.02
595.00 339.98 85.21 0.02
583.55 338.77 88.55 0.02
579.89 340.21 78.17 0.02
573.03 340.57 73.42 0.02
560.00 338.74 80.11 0.03
552.25 338.77 77.19 0.05
543.54 338.46 76.13 0.03
532.65 337.32 79.46 0.02
520.14 335.53 86.26 0.03
517.02 337.28 74.43 0.05
508.26 336.90 73.92 0.05
499.89 336.66 72.70 0.05
493.95 337.39 66.39 0.05
485.39 337.07 65.70 0.05
476.77 336.72 65.21 0.05
467.67 336.15 65.93 0.05
455.07 334.07 74.85 0.05
448.83 334.68 69.34 0.05
441.07 334.64 67.39 0.05
433.33 334.61 65.42 0.05
424.20 333.94 66.95 0.05
415.57 333.48 67.42 0.05
408.42 333.70 64.22 0.05
397.10 331.91 72.01 0.05
389.67 331.98 69.72 0.05
380.01 330.92 73.66 0.05
371.98 330.66 73.26 0.05
365.58 331.25 68.27 0.05
356.17 330.25 72.04 0.05
348.41 330.10 71.17 0.05
339.20 329.14 74.80 0.05
331.80 329.17 73.03 0.05
322.23 327.94 78.31 0.05
312.29 326.41 85.23 0.05
301.47 324.29 95.55 0.05
292.51 323.22 100.05 0.02
282.54 321.45 108.57 0.02
270.35 318.12 125.77 0.01
259.76 315.71 137.95 0.01
250.33 313.95 146.55 0.01
207.77 288.38 288.29 0.02
152.00 251.58 493.25 0.05
148.10 251.96 490.44 0.02
144.11 252.30 487.85 0.03
150.19 260.79 439.51 0.02
150.33 264.89 415.80 0.05
146.32 265.67 410.75 0.05
142.30 266.50 405.36 0.05
137.88 267.04 401.70 0.05
133.58 267.72 397.20 0.05
130.28 269.46 386.79 0.09
125.29 269.58 385.53 0.10
119.98 269.37 386.15 0.10
114.83 269.31 385.95 0.10
109.26 268.77 388.48 0.10
104.41 269.04 386.48 0.10
98.29 267.70 393.60 0.10
94.09 268.86 386.59 0.10
88.81 268.57 387.78 0.10
84.05 269.04 384.75 0.10
78.76 268.73 386.10 0.10
73.83 268.99 384.30 0.10
68.26 268.08 389.11 0.10
63.59 268.86 384.39 0.10
58.50 268.87 384.07 0.10
52.75 267.23 393.13 0.15
46.90 265.00 405.61 0.23
41.68 264.18 410.07 0.20
37.50 266.62 396.00 0.11
32.84 267.92 388.41 0.17
27.86 268.20 386.73 0.14
22.97 269.22 380.80 0.11
17.79 268.60 384.20 0.14
12.68 268.13 386.86 0.12
7.61 268.13 386.79 0.11
2.55 267.92 387.95 0.10
-2.47 268.43 385.03 0.11
-7.51 268.12 386.84 0.11
-12.56 267.98 387.70 0.14
-17.53 267.37 391.25 0.14
-22.53 267.22 392.17 0.10
-27.53 267.12 392.89 0.14
-32.50 266.97 393.82 0.14
-37.63 267.39 391.60 0.14
-42.54 267.03 393.84 0.14
-47.56 267.06 393.90 0.11
-52.50 266.86 395.23 0.10
-57.70 267.29 393.05 0.10
-62.88 267.61 391.51 0.10
-66.18 264.35 410.33 0.09
-70.81 263.88 413.35 0.07
-75.34 263.28 417.08 0.07
-80.61 263.90 413.89 0.07
-86.37 265.18 407.03 0.09
-90.79 264.45 411.59 0.20
-96.51 265.52 405.94 0.11
-102.88 267.27 396.47 0.10
-108.56 268.06 392.51 0.10
-113.20 267.59 395.65 0.10
-118.08 267.42 397.17 0.09
-123.34 267.66 396.34 0.10
-127.73 267.01 400.59 0.05
-131.86 266.17 405.95 0.05
-137.05 266.36 405.51 0.05
-141.05 265.48 411.09 0.02
-146.47 265.88 409.52 0.03
-149.88 264.59 417.47 0.02
-151.69 262.08 432.27 0.01
-141.92 250.66 497.02 0.02
-144.99 249.66 503.28 0.02
-148.63 249.16 506.82 0.02
-159.11 253.59 482.76 0.00
-176.08 262.29 434.95 0.00
-189.97 268.44 401.50 0.00
-255.50 308.41 179.83 0.00
-268.54 312.53 158.11 0.01
-281.80 316.59 136.86 0.01
-295.20 320.53 116.35 0.01
-310.17 325.23 91.76 0.02
-322.25 328.03 77.76 0.02
-329.92 328.18 78.47 0.02
-341.79 330.67 66.32 0.03
-349.80 330.94 66.50 0.02
-357.61 331.10 67.32 0.02
-367.50 332.33 62.30 0.02
-375.77 332.69 62.10 0.02
-384.80 333.42 59.98 0.02
-393.67 334.03 58.48 0.02
-402.47 334.59 57.39 0.02
-411.19 335.09 56.64 0.02
-419.14 335.21 57.96 0.02
-423.88 333.86 67.35 0.02
-422.10 329.62 92.35 0.00
-421.35 325.98 114.05 0.00
-427.07 325.28 119.91 0.00
-435.08 325.58 120.39 0.00
-438.60 323.99 131.10 0.00
-445.11 323.68 134.91 0.00
-454.89 324.71 131.59 0.00
-458.27 323.16 142.15 0.00
-455.79 319.33 164.77 0.00
-465.92 320.51 160.76 0.00
-465.79 317.74 177.73 0.00
-469.29 316.43 187.00 0.00
-475.82 316.27 190.16 0.00
-479.10 314.93 199.59 0.00
-482.07 313.51 209.41 0.00
-486.45 312.63 216.40 0.00
-494.23 312.97 217.07 0.00
-503.20 313.72 215.66 0.00
-521.30 317.56 198.30 0.00
-530.95 318.45 196.33 0.00
-528.76 315.39 214.79 0.00
-551.38 320.54 191.00 0.00
-575.27 325.98 165.95 0.00
-601.21 331.94 138.45 0.00
-624.09 336.78 116.88 0.00
-649.28 342.22 92.40 0.00
-666.69 345.13 80.98 0.00
-677.26 345.89 80.54 0.00
-690.70 347.49 75.92 0.00
-700.00 347.83 77.73 0.00
-707.72 347.69 81.95 0.00
-715.09 347.46 86.72 0.00
564.15 309.98 305.96 0.00
577.71 316.09 273.83 0.00
590.04 321.97 242.65 0.00
602.96 328.17 209.79 0.00
604.65 330.97 193.22 0.01
607.63 334.24 174.30 0.01
609.32 337.17 156.95 0.01
609.16 339.58 142.14 0.02
605.38 340.83 132.95 0.02
599.50 341.42 127.07 0.02
594.04 342.16 120.39 0.02
590.45 343.57 110.48 0.02
580.82 342.90 110.88 0.03
561.57 338.80 128.40 0.03
565.46 342.91 105.09 0.05
557.54 342.83 102.69 0.05
549.69 342.77 100.25 0.05
543.02 343.15 95.60 0.05
530.88 341.46 101.45 0.05
521.03 340.60 103.16 0.05
518.13 342.45 91.23 0.05
509.29 341.99 91.04 0.05
503.13 342.59 85.48 0.05
496.63 343.07 80.54 0.05
488.38 342.84 79.28 0.05
479.85 342.49 78.71 0.05
473.73 343.16 72.92 0.05
463.85 342.20 75.54 0.05
454.63 341.51 76.84 0.05
447.17 341.60 74.20 0.05
437.97 340.88 75.79 0.05
430.50 340.95 73.30 0.05
423.76 341.37 69.04 0.05
413.89 340.28 72.67 0.05
405.86 340.07 71.79 0.05
398.35 340.11 69.63 0.05
389.42 339.42 71.34 0.05
380.73 338.83 72.58 0.05
371.29 337.81 76.13 0.05
364.39 338.14 72.63 0.05
353.72 336.38 80.21 0.05
346.58 336.55 77.58 0.05
338.88 336.41 76.73 0.05
330.48 335.85 78.10 0.05
323.30 335.99 75.78 0.05
312.95 334.18 83.90 0.05
301.26 331.41 97.17 0.03
291.25 329.62 105.35 0.02
282.97 328.89 107.89 0.02
273.19 327.09 116.19 0.02
262.76 324.75 127.47 0.01
252.17 322.15 140.19 0.02
210.17 296.02 279.40 0.01
154.58 257.96 483.16 0.01
154.44 261.39 463.97 0.00
146.38 258.58 478.42 0.01
148.64 264.26 447.07 0.02
150.60 270.04 415.20 0.05
146.77 271.03 409.13 0.05
142.05 271.27 407.17 0.05
137.60 271.78 403.80 0.05
133.53 272.72 398.04 0.05
130.10 274.37 388.47 0.09
125.29 274.68 386.20 0.10
119.95 274.44 386.91 0.10
115.19 274.84 384.21 0.10
109.76 274.47 385.73 0.10
104.37 274.09 387.29 0.10
98.94 273.63 389.32 0.10
94.15 274.02 386.76 0.10
89.30 274.39 384.33 0.10
84.25 274.46 383.54 0.10
79.01 274.25 384.30 0.10
73.94 274.29 383.73 0.10
69.11 274.79 380.70 0.10
63.83 274.45 382.26 0.10
58.97 275.04 378.76 0.10
53.97 275.32 376.95 0.11
48.65 274.80 379.58 0.11
43.54 274.81 379.27 0.10
38.29 274.40 381.35 0.15
33.31 274.84 378.79 0.15
28.12 274.53 380.35 0.15
23.11 275.06 377.33 0.15
17.85 274.03 382.84 0.17
12.68 273.26 387.02 0.15
7.57 272.17 392.95 0.15
2.56 273.25 387.01 0.14
-2.49 274.04 382.69 0.15
-7.53 273.29 386.80 0.15
-12.52 272.72 389.96 0.18
-17.53 272.37 391.95 0.17
-22.55 272.41 391.83 0.15
-27.61 272.53 391.26 0.15
-32.61 272.43 391.96 0.17
-37.49 271.88 395.14 0.17
-42.61 272.26 393.26 0.15
-47.52 271.97 395.04 0.14
-52.68 272.35 393.22 0.11
-57.50 271.85 396.20 0.11
-62.40 271.65 397.53 0.10
-65.41 267.74 419.25 0.07
-70.08 267.41 421.36 0.07
-74.80 267.21 422.79 0.07
-80.22 268.17 417.89 0.07
-85.12 268.23 417.91 0.07
-91.66 270.60 405.39 0.09
-97.25 271.47 401.11 0.10
-103.45 273.04 393.02 0.10
-108.55 273.08 393.26 0.10
-113.59 273.08 393.77 0.10
-118.54 272.96 395.01 0.09
-123.66 273.05 395.05 0.10
-128.00 272.30 399.70 0.05
-132.58 271.86 402.66 0.05
-137.08 271.38 405.90 0.05
-141.89 271.22 407.45 0.05
-146.42 270.81 410.30 0.05
-149.19 268.91 421.28 0.02
-153.53 268.45 424.47 0.01
-148.69 260.53 467.90 0.00
-151.52 259.16 475.97 0.00
-155.55 258.78 478.75 0.00
-162.53 260.62 469.60 0.00
-175.00 266.33 439.71 0.00
-194.35 276.60 385.55 0.00
-255.72 315.19 179.88 0.00
-266.22 317.77 167.28 0.01
-279.39 321.96 146.19 0.01
-294.32 327.09 120.21 0.01
-309.82 332.32 93.76 0.02
-319.88 334.00 86.35 0.02
-331.57 336.57 74.21 0.03
-339.67 336.96 73.79 0.03
-348.39 337.67 71.66 0.02
-357.27 338.44 69.27 0.03
-367.92 340.14 62.03 0.02
-375.07 339.91 65.04 0.02
-383.79 340.50 63.75 0.02
-391.60 340.62 65.02 0.02
-401.85 341.95 59.94 0.02
-410.30 342.34 59.89 0.02
-418.45 342.57 60.70 0.02
-424.32 341.71 67.20 0.02
-423.29 337.65 90.41 0.00
-422.48 333.83 112.32 0.00
-435.07 336.20 102.11 0.00
-438.83 334.56 112.71 0.00
-441.14 332.34 126.33 0.00
-452.25 333.99 120.05 0.00
-480.57 342.86 76.77 0.01
-487.38 342.49 81.03 0.00
-494.61 342.31 84.38 0.00
-492.04 338.18 107.90 0.00
-482.38 331.34 145.08 0.00
-480.01 327.58 166.59 0.00
-481.80 325.52 179.39 0.00
-479.39 321.92 199.95 0.00
-483.30 320.81 207.98 0.00
-488.47 320.18 213.54 0.00
-494.10 319.74 218.20 0.00
-490.36 315.95 239.61 0.00
-506.30 319.24 225.70 0.00
-515.04 319.92 224.88 0.00
-516.01 317.89 237.51 0.00
-520.03 316.96 244.70 0.00
-528.46 317.54 244.48 0.00
-527.95 315.13 258.95 0.00
-546.35 319.00 242.71 0.00
-569.04 324.16 220.33 0.00
-602.90 332.77 181.39 0.00
-637.92 341.55 141.92 0.00
-662.96 346.99 118.88 0.00
-682.20 350.51 105.29 0.00
-687.09 349.57 113.26 0.00
-702.86 351.93 105.45 0.00
608.72 330.40 242.57 0.00
607.14 332.10 231.67 0.00
606.44 334.13 219.25 0.01
609.19 337.32 201.36 0.01
607.05 338.99 190.53 0.01
603.08 340.09 182.38 0.01
597.57 340.69 176.52 0.02
594.53 342.16 166.64 0.02
590.90 343.45 157.57 0.02
583.35 343.41 154.80 0.02
573.34 342.50 156.25 0.02
570.84 344.26 145.01 0.02
562.16 343.82 144.27 0.02
553.97 343.54 142.82 0.02
550.35 344.97 133.20 0.03
547.64 346.77 121.79 0.05
538.64 346.21 121.76 0.05
529.63 345.64 121.89 0.05
519.44 344.58 124.41 0.05
514.27 345.50 117.35 0.05
509.98 346.81 108.44 0.05
501.67 346.50 107.45 0.05
493.25 346.13 106.80 0.05
485.94 346.22 103.92 0.05
481.20 347.44 95.57 0.05
472.95 347.14 94.70 0.05
462.89 346.03 97.88 0.05
449.10 343.19 109.72 0.05
447.63 345.93 93.90 0.05
438.63 345.23 95.20 0.05
428.80 344.13 98.59 0.05
421.91 344.39 95.17 0.05
413.95 344.15 94.35 0.05
409.29 345.56 85.27 0.05
401.52 345.43 83.95 0.05
393.02 344.91 84.67 0.05
386.39 345.37 80.48 0.05
377.69 344.70 81.96 0.05
369.85 344.51 81.16 0.05
361.42 343.97 82.14 0.05
350.47 341.94 90.71 0.05
343.04 341.91 89.22 0.05
334.26 341.07 91.90 0.05
328.25 341.89 86.13 0.05
316.88 339.37 97.47 0.05
309.64 339.40 95.79 0.05
298.22 336.66 108.41 0.03
290.22 336.11 109.84 0.02
282.10 335.45 111.90 0.02
271.51 332.99 123.23 0.02
262.32 331.43 130.05 0.02
252.42 329.25 140.08 0.02
214.60 305.36 262.47 0.01
156.02 263.59 477.79 0.00
156.30 267.52 456.68 0.00
151.82 267.68 455.15 0.00
147.78 268.23 451.59 0.02
150.02 274.45 418.54 0.05
147.11 276.32 408.10 0.05
142.22 276.41 406.97 0.05
137.83 277.01 403.22 0.05
132.99 277.18 401.67 0.05
130.10 279.48 389.07 0.09
125.56 280.11 385.15 0.10
120.19 279.83 386.10 0.10
115.04 279.77 385.83 0.10
109.48 279.19 388.38 0.10
104.36 279.15 388.08 0.10
98.69 278.35 391.82 0.09
94.04 278.95 388.23 0.10
89.01 279.04 387.32 0.10
84.15 279.40 385.02 0.10
78.97 279.24 385.50 0.10
74.01 279.50 383.79 0.10
68.94 279.59 382.96 0.10
64.08 280.12 379.91 0.10
59.15 280.55 377.34 0.11
54.00 280.56 377.01 0.14
48.75 280.23 378.51 0.15
43.63 280.23 378.34 0.15
38.36 279.71 380.86 0.17
33.22 279.58 381.40 0.17
28.04 279.23 383.11 0.17
23.04 279.74 380.28 0.18
17.82 278.98 384.22 0.17
12.68 278.30 387.76 0.17
7.59 277.65 391.13 0.15
2.55 277.88 389.86 0.15
-2.48 278.89 384.55 0.17
-7.50 277.92 389.70 0.17
-12.44 276.80 395.65 0.20
-17.44 276.75 396.01 0.18
-22.54 277.30 393.20 0.15
-27.51 277.06 394.54 0.17
-32.52 277.06 394.70 0.17
-37.63 277.41 393.02 0.15
-42.59 277.22 394.19 0.15
-47.56 277.08 395.14 0.14
-52.68 277.35 393.95 0.12
-57.86 277.74 392.13 0.10
-61.56 274.79 407.95 0.09
-65.36 272.50 420.32 0.07
-70.20 272.49 420.64 0.07
-74.95 272.32 421.88 0.07
-80.29 273.14 417.95 0.07
-84.83 272.63 421.01 0.07
-91.12 274.78 410.10 0.07
-98.08 277.62 395.64 0.09
-103.09 277.60 396.20 0.10
-108.48 278.05 394.33 0.10
-113.33 277.82 396.07 0.10
-118.29 277.71 397.14 0.09
-123.80 278.26 394.86 0.10
-128.14 277.48 399.51 0.05
-131.86 276.12 407.21 0.05
-137.42 276.71 404.76 0.05
-141.75 276.05 408.83 0.05
-146.88 276.20 408.71 0.05
-150.58 275.04 415.45 0.02
-151.46 271.51 434.53 0.01
-149.16 265.52 466.34 0.00
-154.46 266.08 464.14 0.00
-158.36 265.53 467.73 0.00
-163.61 266.02 465.92 0.00
-175.24 271.31 439.40 0.00
-192.53 280.45 393.07 0.00
-254.52 320.98 185.13 0.00
-266.52 324.73 167.05 0.01
-277.17 327.36 154.77 0.01
-293.19 333.43 124.96 0.01
-309.17 339.19 96.83 0.02
-320.07 341.48 86.64 0.02
-330.01 343.07 80.08 0.02
-339.45 344.29 75.45 0.03
-347.75 344.78 74.57 0.02
-357.47 346.08 69.67 0.02
-363.39 345.17 76.01 0.02
-374.04 346.92 68.93 0.02
-383.67 348.04 65.05 0.02
-391.51 348.17 66.28 0.02
-399.82 348.54 66.32 0.02
-408.69 349.18 65.05 0.02
-417.10 349.57 65.09 0.02
-425.91 350.14 64.29 0.02
-416.61 341.90 107.61 0.00
-424.29 342.04 108.96 0.00
-444.67 348.14 80.67 0.01
-450.67 347.40 86.53 0.01
-449.07 343.24 109.44 0.00
-453.88 342.07 117.44 0.00
-481.95 351.15 74.80 0.01
-492.98 352.59 70.14 0.01
-505.29 354.52 63.07 0.01
-512.59 354.30 66.67 0.01
-515.40 352.23 79.35 0.00
-508.10 346.11 111.82 0.00
-505.38 342.00 134.35 0.00
-493.98 334.59 172.89 0.00
-493.32 331.56 190.01 0.00
-492.80 328.68 206.41 0.00
-494.88 326.85 217.70 0.00
-497.63 325.33 227.50 0.00
-492.63 320.99 250.77 0.00
-496.85 320.13 257.39 0.00
-505.76 320.96 255.92 0.00
-501.07 316.96 277.51 0.00
-501.97 315.01 289.25 0.00
-519.51 318.86 273.60 0.00
-522.70 317.72 281.61 0.00
-531.42 318.47 280.71 0.00
-556.20 324.54 255.02 0.00
-559.32 323.35 263.39 0.00
-583.41 329.00 239.96 0.00
-598.26 331.55 231.13 0.00
-624.35 337.61 206.20 0.00
-662.22 347.22 165.15 0.00
608.64 337.33 243.69 0.01
603.08 337.79 238.59 0.01
602.34 339.86 226.32 0.01
599.96 341.43 216.27 0.01
596.36 342.62 207.90 0.02
587.27 341.95 207.97 0.02
583.98 343.28 198.98 0.02
577.95 343.68 194.26 0.02
570.61 343.63 191.63 0.02
562.90 343.43 189.66 0.02
562.21 345.81 175.96 0.02
555.27 345.93 172.64 0.03
550.47 346.86 165.59 0.03
541.39 346.17 166.04 0.03
537.88 347.62 156.63 0.05
534.15 349.03 147.41 0.05
520.53 346.55 156.32 0.05
518.09 348.50 144.64 0.05
506.92 346.93 149.41 0.05
497.45 346.03 151.14 0.05
493.16 347.28 142.82 0.05
489.35 348.78 133.32 0.05
481.39 348.51 132.19 0.05
471.64 347.45 134.83 0.05
464.23 347.41 132.72 0.05
459.54 348.60 124.77 0.05
451.48 348.28 124.09 0.05
443.48 347.96 123.39 0.05
437.83 348.77 117.35 0.05
429.01 348.06 118.65 0.05
422.29 348.36 115.14 0.05
413.27 347.52 117.13 0.05
408.23 348.68 109.53 0.05
399.92 348.18 109.95 0.05
395.26 349.60 101.14 0.05
385.85 348.51 104.55 0.05
379.85 349.25 99.08 0.05
371.83 348.89 99.04 0.05
364.13 348.69 98.22 0.05
355.92 348.19 98.95 0.05
345.42 346.30 106.53 0.05
337.80 346.09 105.91 0.05
331.08 346.43 102.64 0.05
322.20 345.40 106.15 0.05
315.38 345.67 103.27 0.05
306.02 344.26 108.75 0.05
296.35 342.58 115.67 0.05
287.39 341.29 120.65 0.05
278.67 340.12 125.08 0.02
269.86 338.83 130.21 0.02
260.42 336.98 138.11 0.02
250.82 334.91 147.25 0.02
211.52 308.94 275.57 0.01
153.75 266.23 487.76 0.01
157.33 273.07 452.89 0.00
150.83 271.49 460.07 0.00
147.69 272.84 452.58 0.03
149.96 279.32 419.44 0.05
146.38 280.60 412.32 0.05
142.14 281.33 407.97 0.05
137.42 281.61 405.91 0.05
132.08 281.23 407.21 0.05
130.36 284.86 388.30 0.09
125.73 285.42 384.92 0.10
120.43 285.22 385.33 0.10
115.83 285.90 381.39 0.10
109.76 284.67 387.07 0.10
104.63 284.63 386.76 0.10
99.15 284.06 389.19 0.09
94.23 284.34 387.30 0.10
89.18 284.38 386.69 0.10
84.02 284.28 386.77 0.10
79.12 284.64 384.60 0.10
74.12 284.84 383.20 0.10
69.05 284.92 382.52 0.10
64.05 285.19 380.84 0.10
58.93 285.16 380.66 0.10
54.18 286.15 375.39 0.11
48.97 286.02 375.82 0.15
43.88 286.22 374.63 0.15
38.50 285.39 378.60 0.15
33.22 284.75 381.73 0.15
28.06 284.49 382.90 0.15
23.09 285.20 379.15 0.15
17.87 284.48 382.73 0.15
12.68 283.40 388.17 0.15
7.59 282.73 391.54 0.14
2.55 283.10 389.64 0.11
-2.48 283.95 385.27 0.15
-7.53 283.48 387.71 0.15
-12.52 282.71 391.65 0.15
-17.52 282.36 393.52 0.15
-22.47 281.95 395.72 0.11
-27.47 281.93 395.95 0.14
-32.47 281.85 396.48 0.14
-37.54 282.11 395.30 0.14
-42.52 282.01 395.97 0.11
-47.52 282.00 396.22 0.11
-52.45 281.74 397.79 0.10
-57.61 282.15 395.97 0.10
-60.58 277.48 419.95 0.10
-65.47 277.56 419.83 0.09
-70.05 277.04 422.78 0.09
-75.23 277.65 420.01 0.07
-80.13 277.75 419.86 0.07
-84.70 277.27 422.66 0.07
-91.30 279.97 409.44 0.07
-98.19 282.81 395.50 0.09
-103.37 283.00 394.96 0.10
-108.97 283.75 391.70 0.11
-113.37 282.90 396.50 0.10
-118.59 283.12 395.92 0.10
-124.05 283.60 394.09 0.10
-127.55 281.85 403.46 0.05
-132.49 281.78 404.45 0.05
-136.63 280.89 409.55 0.05
-141.69 280.97 409.78 0.05
-146.42 280.74 411.58 0.05
-151.66 281.00 411.01 0.02
-151.88 276.71 433.20 0.01
-150.14 270.96 462.67 0.00
-154.16 270.45 465.96 0.00
-157.69 269.56 471.14 0.00
-162.30 269.60 471.70 0.00
-175.75 276.50 438.08 0.00
-192.86 285.84 392.47 0.00
-255.10 328.02 183.89 0.00
-265.29 330.59 172.36 0.01
-276.45 333.71 158.16 0.01
-291.67 339.46 131.07 0.01
-308.20 345.82 101.04 0.02
-319.41 348.41 89.77 0.02
-328.85 349.75 84.69 0.02
-338.66 351.25 78.89 0.03
-348.00 352.41 74.84 0.02
-354.67 351.92 78.92 0.02
-364.04 353.04 75.17 0.02
-372.57 353.63 74.08 0.02
-382.14 354.78 70.29 0.02
-391.29 355.66 67.88 0.02
-399.02 355.73 69.43 0.02
-407.42 356.15 69.35 0.02
-415.92 356.61 69.13 0.02
-421.89 355.76 75.29 0.02
-416.67 349.30 108.48 0.00
-421.94 348.25 115.58 0.00
-445.92 356.35 78.79 0.01
-455.85 357.45 75.70 0.01
-453.32 352.66 100.89 0.00
-451.01 348.13 124.76 0.00
-484.32 359.95 70.70 0.01
-498.35 362.76 59.76 0.02
-506.95 363.09 60.68 0.01
-515.65 363.46 61.46 0.01
-524.36 363.81 62.36 0.01
-532.53 363.93 64.42 0.01
-536.86 362.45 74.02 0.00
-540.10 360.58 85.50 0.00
-533.46 354.76 115.38 0.00
-519.91 346.36 157.16 0.00
-507.32 338.56 195.96 0.00
-503.52 334.39 217.85 0.00
-501.47 330.98 236.10 0.00
-504.63 329.64 244.82 0.00
-499.23 325.14 268.01 0.00
-501.79 323.69 277.19 0.00
-497.69 319.86 297.20 0.00
-504.01 319.85 299.75 0.00
-501.75 316.81 316.09 0.00
-514.95 319.24 307.64 0.00
-522.26 319.58 308.70 0.00
-529.55 319.91 309.86 0.00
-543.15 322.35 301.64 0.00
-546.82 321.44 308.47 0.00
-566.94 325.95 291.19 0.00
-585.30 329.79 277.03 0.00
602.38 342.17 253.70 0.01
599.09 343.40 245.41 0.01
592.14 343.39 242.46 0.01
588.08 344.39 235.20 0.02
579.92 343.97 234.07 0.02
572.13 343.66 232.51 0.02
562.19 342.58 234.36 0.02
557.22 343.28 228.45 0.02
547.38 342.20 230.44 0.02
545.23 343.98 219.86 0.02
538.89 344.20 216.15 0.03
537.84 346.48 203.39 0.03
534.70 347.99 194.00 0.05
526.15 347.42 193.91 0.05
521.33 348.31 187.29 0.05
510.97 346.99 190.64 0.05
509.95 349.47 176.95 0.05
499.32 348.00 181.03 0.05
492.69 348.20 177.70 0.05
483.98 347.50 178.42 0.05
481.82 349.64 166.30 0.05
469.70 347.43 174.00 0.05
465.54 348.74 165.70 0.05
457.64 348.38 165.08 0.05
452.86 349.45 157.92 0.05
448.70 350.85 149.26 0.05
440.41 350.32 149.54 0.05
432.77 350.08 148.46 0.05
425.76 350.15 146.05 0.05
415.70 348.70 150.72 0.05
410.42 349.63 144.36 0.05
403.58 349.78 141.65 0.05
395.86 349.48 141.14 0.05
390.89 350.64 133.79 0.05
383.07 350.29 133.55 0.05
376.85 350.81 129.26 0.05
370.70 351.39 124.71 0.05
363.23 351.24 123.67 0.05
357.26 351.97 118.48 0.05
347.19 350.23 125.00 0.05
337.52 348.68 130.66 0.05
333.00 350.31 121.35 0.05
323.20 348.60 127.85 0.05
316.73 349.03 124.32 0.05
306.60 346.99 132.51 0.05
302.77 349.22 120.45 0.05
293.10 347.41 127.66 0.05
283.20 345.34 136.19 0.03
275.08 344.50 138.84 0.02
267.44 343.98 140.07 0.02
257.55 341.68 149.86 0.02
248.08 339.57 158.80 0.02
208.99 312.79 286.51 0.01
152.61 269.72 493.02 0.01
152.11 273.17 475.67 0.00
151.44 276.68 458.03 0.00
146.25 276.18 459.73 0.03
149.50 283.78 422.27 0.05
146.96 286.14 410.20 0.05
141.94 286.11 409.64 0.07
137.75 286.96 404.89 0.05
132.71 286.91 404.48 0.05
130.60 290.26 387.63 0.09
125.41 290.17 387.42 0.10
120.26 290.14 387.02 0.11
114.93 289.84 387.91 0.15
109.84 289.89 387.20 0.10
104.44 289.46 388.79 0.10
98.94 288.85 391.30 0.10
93.83 288.79 391.14 0.10
88.87 288.98 389.77 0.10
84.15 289.60 386.36 0.10
78.98 289.46 386.64 0.10
73.98 289.66 385.33 0.10
69.20 290.35 381.63 0.10
63.91 289.96 383.22 0.10
59.11 290.77 379.00 0.11
54.31 291.71 374.11 0.14
49.02 291.32 375.82 0.15
44.02 291.84 373.01 0.15
38.86 291.95 372.27 0.18
33.40 290.64 378.54 0.15
28.10 289.71 382.97 0.15
23.10 290.38 379.57 0.15
17.86 289.42 384.19 0.15
12.68 288.33 389.46 0.15
7.59 287.89 391.55 0.14
2.55 287.96 391.22 0.11
-2.49 289.63 383.04 0.15
-7.51 288.03 390.91 0.15
-12.47 287.05 395.75 0.15
-17.47 287.03 395.89 0.15
-22.52 287.22 395.04 0.14
-27.45 286.78 397.38 0.15
-32.45 286.75 397.63 0.15
-37.52 287.02 396.50 0.14
-42.54 287.05 396.52 0.10
-47.40 286.60 398.94 0.10
-52.47 286.81 398.14 0.10
-56.65 284.72 408.64 0.10
-60.86 282.99 417.39 0.09
-65.02 281.46 425.14 0.09
-70.23 282.24 421.64 0.09
-74.94 282.00 423.16 0.07
-80.06 282.49 421.11 0.07
-85.86 284.05 413.84 0.07
-92.37 286.61 401.76 0.07
-97.58 286.93 400.66 0.09
-103.05 287.61 397.79 0.10
-107.91 287.36 399.50 0.10
-113.11 287.59 398.89 0.10
-118.56 288.13 396.77 0.10
-123.98 288.58 395.14 0.10
-128.03 287.41 401.45 0.05
-132.11 286.36 407.16 0.05
-136.97 286.22 408.47 0.05
-142.33 286.62 407.16 0.05
-146.96 286.24 409.70 0.05
-151.03 285.37 414.59 0.05
-151.77 281.43 434.35 0.02
-149.96 275.41 464.13 0.00
-154.00 274.90 467.31 0.00
-156.96 273.51 474.76 0.00
-163.83 275.43 466.29 0.00
-174.46 280.28 443.73 0.00
-195.58 293.12 382.94 0.00
-254.11 333.89 188.40 0.00
-264.76 336.90 175.20 0.01
-274.11 338.84 167.25 0.01
-292.97 347.41 127.63 0.02
-308.35 353.18 101.54 0.02
-319.35 355.71 90.95 0.03
-328.67 357.02 86.28 0.02
-337.02 357.64 84.92 0.02
-343.63 357.13 88.98 0.02
-353.47 358.65 83.46 0.02
-361.83 359.21 82.53 0.02
-371.79 360.69 77.32 0.02
-380.83 361.59 74.92 0.02
-388.20 361.49 77.25 0.02
-398.76 363.18 71.21 0.02
-405.94 362.95 74.26 0.02
-414.95 363.72 72.65 0.02
-420.61 362.68 79.52 0.02
-410.47 353.44 124.59 0.00
-419.69 354.44 121.97 0.00
-447.01 364.52 77.32 0.01
-455.54 364.96 77.51 0.01
-453.85 360.41 100.77 0.00
-451.72 355.80 124.25 0.00
-483.39 367.25 73.85 0.01
-497.23 370.09 63.28 0.02
-506.42 370.71 62.92 0.02
-515.28 371.16 63.39 0.02
-526.10 372.47 59.97 0.02
-534.88 372.84 60.92 0.01
-542.78 372.84 63.63 0.01
-551.65 373.24 64.53 0.01
-559.11 373.04 68.18 0.00
-566.21 372.70 72.54 0.00
-556.83 365.67 106.89 0.00
-552.28 360.77 131.57 0.00
-528.08 348.23 190.21 0.00
-520.72 342.60 217.89 0.00
-513.73 337.26 244.21 0.00
-505.26 331.49 272.28 0.00
-505.95 329.29 284.50 0.00
-502.79 325.74 302.64 0.00
-499.29 322.15 320.92 0.00
-507.04 322.70 321.01 0.00
-504.32 319.52 337.45 0.00
-521.03 323.25 323.83 0.00
-521.34 321.18 335.39 0.00
-522.91 319.60 344.84 0.00
-523.30 317.65 355.86 0.00
-538.76 320.81 344.98 0.00
558.17 333.69 318.25 0.01
549.58 332.90 318.69 0.02
540.71 332.01 319.65 0.02
524.32 328.38 332.09 0.05
514.96 327.24 334.26 0.05
505.20 325.91 337.26 0.07
497.57 325.35 337.09 0.07
492.76 325.83 332.54 0.07
485.45 325.37 332.03 0.07
480.73 325.92 327.32 0.07
476.58 326.69 321.60 0.07
469.70 326.40 320.48 0.07
471.70 329.68 304.05 0.07
473.05 332.79 288.33 0.05
481.17 338.77 260.14 0.05
494.32 347.05 221.95 0.05
494.48 350.01 206.60 0.05
489.26 350.75 200.96 0.05
479.08 349.33 204.73 0.05
473.97 350.12 198.92 0.05
463.35 348.45 203.89 0.05
458.29 349.27 198.01 0.05
452.95 350.00 192.53 0.05
446.32 350.13 189.75 0.05
436.52 348.75 193.64 0.05
434.47 351.10 181.10 0.05
429.58 352.12 174.44 0.05
422.73 352.19 172.03 0.05
413.54 351.05 175.03 0.05
408.82 352.22 167.80 0.05
400.13 351.31 169.89 0.05
396.36 353.04 160.20 0.05
388.75 352.71 159.76 0.05
382.51 353.14 155.94 0.05
372.88 351.64 160.85 0.05
364.25 350.68 163.40 0.05
357.83 351.00 160.25 0.05
350.36 350.68 159.97 0.05
344.42 351.29 155.51 0.05
338.98 352.24 149.52 0.05
331.47 351.90 149.45 0.05
322.92 350.88 152.54 0.05
317.80 352.10 145.42 0.05
308.26 350.35 151.95 0.05
299.04 348.74 157.89 0.05
291.70 348.42 157.98 0.05
283.77 347.63 160.23 0.05
275.64 346.65 163.45 0.05
268.05 346.05 164.88 0.02
262.44 346.97 159.39 0.02
255.16 346.60 159.89 0.02
247.42 345.82 162.28 0.03
212.83 321.98 272.00 0.02
153.16 274.63 491.40 0.01
156.97 282.12 455.79 0.00
149.17 279.21 468.61 0.00
144.42 279.05 468.66 0.03
149.19 288.39 424.33 0.05
146.27 290.41 414.22 0.05
141.41 290.52 413.01 0.05
136.92 291.05 409.89 0.07
132.30 291.45 407.39 0.05
129.83 294.46 392.63 0.09
125.65 295.59 386.75 0.11
121.23 296.51 381.84 0.11
115.31 295.47 386.15 0.11
109.40 294.35 390.95 0.10
104.58 294.77 388.47 0.10
98.83 293.73 392.88 0.09
94.15 294.36 389.45 0.10
89.19 294.60 387.90 0.10
83.97 294.37 388.63 0.10
79.12 294.85 385.97 0.10
73.51 293.76 390.76 0.10
69.08 295.19 383.64 0.10
63.90 295.06 383.97 0.10
59.18 296.06 378.97 0.11
54.41 297.16 373.51 0.15
49.47 297.89 369.78 0.17
44.11 297.38 372.01 0.20
39.00 297.69 370.35 0.23
33.40 295.72 379.50 0.20
28.03 294.45 385.39 0.18
23.06 295.31 381.20 0.18
17.84 294.33 385.76 0.18
12.64 292.88 392.55 0.18
7.53 291.78 397.72 0.18
2.54 292.43 394.60 0.15
-2.48 294.53 384.67 0.18
-7.42 291.63 398.45 0.18
-12.42 291.50 399.10 0.18
-17.45 291.84 397.54 0.17
-22.50 292.08 396.51 0.15
-27.28 290.83 402.54 0.17
-32.33 291.20 400.95 0.15
-37.29 291.10 401.57 0.14
-42.43 291.70 398.91 0.10
-47.29 291.25 401.26 0.10
-52.13 290.81 403.57 0.10
-56.25 288.56 414.46 0.09
-60.66 287.40 420.23 0.09
-65.30 286.92 422.80 0.09
-70.25 287.12 422.15 0.07
-75.01 286.98 423.17 0.07
-79.93 287.09 422.97 0.07
-85.98 289.19 413.44 0.07
-92.09 291.16 404.58 0.07
-97.73 292.19 400.14 0.09
-102.76 292.20 400.57 0.10
-108.09 292.66 398.88 0.10
-112.97 292.43 400.45 0.10
-118.79 293.47 396.13 0.10
-123.75 293.34 397.28 0.11
-127.62 291.93 404.51 0.07
-131.58 290.74 410.69 0.05
-137.00 291.24 408.96 0.05
-142.27 291.55 408.19 0.05
-146.66 290.91 411.85 0.05
-151.47 290.76 413.26 0.03
-151.38 285.87 436.82 0.02
-146.50 276.80 479.85 0.00
-153.44 279.00 470.30 0.00
-157.83 278.83 471.83 0.00
-163.24 279.54 469.28 0.00
-173.11 283.94 449.64 0.00
-199.52 301.53 368.85 0.00
-252.19 338.98 196.38 0.00
-264.63 343.51 176.63 0.01
-277.55 348.19 156.26 0.01
-289.36 351.83 140.80 0.02
-304.85 357.93 114.14 0.02
-318.22 362.26 95.67 0.02
-326.07 362.63 95.50 0.02
-334.70 363.49 93.14 0.02
-341.98 363.44 95.01 0.02
-350.88 364.43 92.14 0.02
-361.04 366.17 85.91 0.02
-370.88 367.65 80.95 0.02
-378.88 367.95 81.39 0.02
-386.80 368.20 82.09 0.02
-395.82 369.07 80.05 0.02
-404.29 369.60 79.60 0.02
-411.04 369.15 83.64 0.02
-416.26 367.88 91.39 0.01
-406.60 358.63 135.01 0.00
-411.23 357.27 143.10 0.00
-442.54 369.84 88.84 0.01
-453.25 371.44 83.88 0.01
-451.11 366.54 108.01 0.00
-447.70 361.15 134.20 0.00
-477.82 372.28 87.01 0.01
-496.67 377.66 65.59 0.01
-505.51 378.14 65.94 0.01
-516.41 379.56 62.19 0.02
-524.57 379.68 64.25 0.01
-533.60 380.20 64.60 0.02
-544.78 381.65 60.91 0.01
-551.96 381.31 65.13 0.01
-561.61 382.05 64.67 0.01
-569.59 382.05 67.50 0.01
-580.02 383.09 65.88 0.00
-580.15 379.83 82.88 0.00
-578.66 375.99 102.28 0.00
-578.34 372.73 119.21 0.00
-565.63 364.62 156.84 0.00
-533.22 348.99 226.40 0.00
-534.51 346.82 238.33 0.00
-513.84 336.29 285.67 0.00
-504.95 330.49 312.82 0.00
-504.25 327.89 326.35 0.00
-501.23 324.49 343.17 0.00
-501.67 322.43 354.33 0.00
-507.14 322.24 357.66 0.00
-514.53 322.73 358.19 0.00
-508.69 318.56 378.10 0.00
-522.19 321.21 369.73 0.00
486.04 314.15 422.76 0.07
479.26 313.70 422.11 0.07
480.05 316.03 410.33 0.07
476.35 316.74 405.07 0.07
479.14 319.91 389.83 0.07
483.04 323.59 372.51 0.07
490.26 328.63 349.55 0.05
492.92 332.02 333.23 0.05
488.92 332.86 327.34 0.07
483.05 332.97 324.44 0.07
471.75 330.88 330.65 0.07
466.60 331.27 326.70 0.07
451.95 327.70 339.16 0.09
448.48 328.77 332.48 0.09
442.13 328.62 330.85 0.09
438.60 329.71 324.14 0.09
440.73 333.30 306.88 0.07
448.82 339.65 277.95 0.07
460.64 347.88 241.01 0.05
461.07 351.12 225.01 0.05
455.32 351.57 220.82 0.05
447.23 350.93 221.28 0.05
442.70 351.99 214.57 0.05
436.04 352.04 212.20 0.05
429.26 352.03 210.11 0.05
421.79 351.67 209.53 0.05
418.50 353.44 199.89 0.05
409.51 352.30 202.73 0.05
404.19 353.06 197.44 0.05
396.64 352.66 197.20 0.05
388.35 351.84 198.86 0.05
383.07 352.66 193.41 0.05
376.97 353.04 189.89 0.05
372.72 354.50 181.70 0.05
364.39 353.63 183.71 0.05
354.76 351.94 189.32 0.05
349.66 352.95 183.20 0.05
344.10 353.71 178.15 0.05
336.54 353.24 178.58 0.05
329.75 353.24 177.00 0.05
320.60 351.68 182.29 0.05
313.10 351.18 183.00 0.05
307.64 352.06 177.63 0.05
301.54 352.53 174.04 0.05
294.83 352.58 172.42 0.05
286.44 351.37 176.36 0.05
277.51 349.72 182.39 0.05
271.00 349.85 180.52 0.05
262.79 348.65 184.61 0.02
258.89 350.89 173.36 0.02
256.52 354.54 155.75 0.05
249.80 354.65 154.07 0.05
221.75 335.86 237.38 0.02
151.47 277.53 498.93 0.01
153.44 283.49 471.38 0.00
148.91 283.55 470.39 0.00
144.16 283.37 470.54 0.05
148.88 292.95 426.57 0.05
145.58 294.63 418.25 0.05
141.27 295.32 414.48 0.05
136.83 295.91 411.14 0.07
132.58 296.78 406.57 0.07
129.72 299.41 393.98 0.10
125.33 300.30 389.36 0.15
120.68 300.91 386.01 0.14
115.06 300.26 388.45 0.11
109.38 299.42 391.73 0.10
104.30 299.44 391.15 0.10
99.18 299.36 391.03 0.10
94.62 300.26 386.51 0.10
89.20 299.72 388.54 0.10
84.37 300.24 385.76 0.10
79.15 299.98 386.57 0.10
73.83 299.55 388.19 0.10
69.23 300.67 382.73 0.10
64.05 300.51 383.15 0.10
58.95 300.56 382.64 0.14
54.18 301.67 377.28 0.15
49.02 301.60 377.38 0.15
44.02 302.24 374.22 0.18
38.75 301.85 375.84 0.18
33.43 301.01 379.50 0.18
28.23 300.73 380.65 0.17
23.13 300.90 379.75 0.18
17.86 299.62 385.51 0.18
12.69 298.72 389.61 0.18
7.55 297.20 396.53 0.20
2.54 297.59 394.69 0.15
-2.48 299.18 387.40 0.18
-7.38 295.44 404.59 0.20
-12.32 295.35 405.04 0.20
-17.36 296.04 401.97 0.17
-22.45 296.87 398.26 0.15
-27.47 296.95 397.98 0.15
-32.15 295.35 405.46 0.15
-37.24 295.87 403.26 0.14
-42.40 296.57 400.21 0.11
-47.25 296.13 402.41 0.10
-52.06 295.61 405.04 0.10
-56.31 293.63 414.39 0.09
-61.06 293.26 416.34 0.09
-66.19 293.82 414.05 0.09
-75.52 303.42 370.47 0.10
-74.62 291.01 427.55 0.07
-79.69 291.50 425.70 0.07
-86.70 295.41 408.22 0.07
-92.01 296.00 405.92 0.09
-96.72 295.55 408.40 0.09
-102.69 297.10 401.82 0.10
-107.55 296.90 403.22 0.10
-112.31 296.55 405.32 0.11
-116.91 296.00 408.32 0.11
-122.54 296.85 405.04 0.10
-127.38 296.66 406.47 0.07
-130.86 294.84 415.34 0.05
-135.52 294.53 417.40 0.05
-141.21 295.36 414.27 0.05
-145.19 294.33 419.60 0.05
-148.17 292.33 429.36 0.02
-149.50 288.80 446.00 0.01
-145.94 280.77 482.94 0.00
-150.80 281.11 482.10 0.00
-155.92 281.67 480.31 0.00
-160.69 281.88 480.10 0.00
-171.89 287.64 455.01 0.00
-198.22 305.76 374.57 0.00
-250.99 344.54 201.76 0.01
-262.14 348.23 186.46 0.01
-275.05 353.11 165.92 0.01
-292.17 360.93 132.34 0.02
-303.92 364.42 118.22 0.02
-313.64 366.27 111.46 0.02
-323.89 368.41 103.48 0.02
-331.48 368.63 104.09 0.02
-340.57 369.84 100.32 0.02
-349.25 370.74 98.01 0.02
-360.39 373.21 88.83 0.02
-366.60 372.42 94.04 0.02
-375.60 373.41 91.48 0.02
-383.33 373.59 92.52 0.02
-393.14 375.01 88.20 0.02
-401.13 375.30 88.86 0.02
-408.22 375.06 91.88 0.02
-414.89 374.60 95.88 0.01
-404.32 364.56 141.60 0.00
-409.60 363.53 148.05 0.00
-438.20 375.07 100.11 0.01
-450.52 377.63 91.23 0.01
-450.01 373.42 111.59 0.00
-449.23 369.22 131.90 0.00
-476.73 379.38 90.54 0.01
-493.67 384.00 73.15 0.01
-501.51 384.02 75.52 0.01
-513.67 386.13 69.02 0.01
-523.15 386.91 68.29 0.01
-532.02 387.36 68.95 0.01
-542.23 388.44 67.07 0.01
-552.21 389.37 65.86 0.01
-563.28 390.76 62.79 0.01
-572.09 391.12 64.08 0.01
-582.16 392.02 63.21 0.01
-589.23 391.61 67.86 0.01
-596.83 391.43 71.57 0.00
-602.64 390.51 78.40 0.00
-608.01 389.44 85.89 0.00
-602.84 384.12 110.91 0.00
-593.95 377.44 141.44 0.00
-556.76 359.74 217.04 0.00
-530.50 346.74 273.00 0.00
-519.65 340.02 303.09 0.00
-519.30 337.45 316.14 0.00
-517.65 334.46 330.89 0.00
-514.20 330.86 348.02 0.00
-508.01 326.35 368.76 0.00
-507.98 324.18 380.05 0.00
-507.14 321.77 392.27 0.00
491.51 321.73 415.80 0.05
483.95 321.00 416.16 0.07
472.92 318.94 421.78 0.07
462.10 316.91 427.35 0.07
453.30 315.62 430.09 0.09
448.04 315.67 427.58 0.09
444.10 316.28 422.97 0.09
445.89 319.19 409.23 0.07
462.88 328.38 370.51 0.05
481.98 338.68 327.17 0.05
489.50 344.39 301.96 0.05
480.39 343.21 304.25 0.05
471.17 341.94 306.95 0.05
464.85 341.92 304.72 0.07
449.52 337.90 318.63 0.07
439.76 336.26 323.02 0.09
426.86 333.17 333.40 0.10
418.97 332.28 334.91 0.10
414.97 333.19 329.14 0.10
415.58 336.31 314.32 0.07
427.42 344.91 276.95 0.05
436.13 352.25 244.64 0.05
429.00 351.96 243.66 0.05
427.25 354.37 231.57 0.05
417.02 352.54 237.08 0.05
411.25 352.94 233.34 0.05
405.29 353.28 229.96 0.05
397.22 352.48 231.29 0.05
388.51 351.31 234.26 0.05
386.98 354.08 220.76 0.05
381.19 354.55 216.89 0.05
376.42 355.61 210.55 0.05
367.73 354.43 213.75 0.05
362.44 355.22 208.60 0.05
356.00 355.35 206.32 0.05
348.97 355.11 205.58 0.05
343.57 355.90 200.55 0.05
334.85 354.59 204.51 0.05
327.63 354.19 204.57 0.05
320.50 353.85 204.47 0.05
312.60 352.98 206.69 0.05
306.67 353.42 203.26 0.05
300.80 353.95 199.57 0.05
292.89 353.00 202.21 0.05
287.82 354.12 196.00 0.05
279.16 352.56 201.39 0.05
271.64 351.82 203.23 0.05
261.47 348.91 214.53 0.05
254.72 348.67 214.35 0.03
255.92 355.12 185.20 0.02
254.36 359.52 164.89 0.03
250.86 362.43 151.02 0.05
230.77 350.36 202.39 0.05
151.60 282.04 499.09 0.02
149.38 284.14 489.23 0.00
145.13 284.36 487.57 0.00
140.30 283.97 488.58 0.02
144.86 293.55 446.00 0.01
142.69 296.38 432.94 0.02
138.52 297.16 428.86 0.02
135.30 299.08 419.79 0.02
132.24 301.35 409.20 0.05
129.11 303.71 398.22 0.07
125.51 305.66 389.03 0.09
120.19 305.39 389.64 0.09
113.83 303.57 397.13 0.07
108.62 303.35 397.57 0.07
102.76 302.07 402.75 0.07
98.69 303.65 395.28 0.07
93.31 303.09 397.34 0.07
88.75 303.96 393.04 0.07
83.70 304.02 392.40 0.07
78.90 304.57 389.57 0.07
73.93 304.82 388.13 0.07
69.02 305.30 385.64 0.07
63.54 304.32 389.71 0.07
58.88 305.50 384.20 0.09
53.65 305.16 385.46 0.09
48.81 306.06 381.21 0.09
43.74 306.28 380.02 0.10
38.52 305.98 381.15 0.10
33.31 305.59 382.71 0.10
28.10 305.02 385.14 0.10
23.04 305.30 383.75 0.10
17.79 304.15 388.77 0.10
12.71 303.89 389.84 0.10
7.59 302.70 395.08 0.10
2.53 301.51 400.38 0.10
-2.45 302.39 396.46 0.10
-7.48 302.49 396.01 0.10
-12.46 302.00 398.27 0.10
-17.31 300.60 404.52 0.10
-22.37 301.20 401.97 0.10
-27.20 300.33 405.95 0.09
-32.31 301.07 402.78 0.09
-37.22 300.78 404.25 0.07
-42.04 300.24 406.85 0.07
-47.02 300.27 406.91 0.07
-51.90 300.05 408.13 0.07
-56.27 298.44 415.51 0.07
-61.04 298.07 417.40 0.07
-65.41 296.85 423.08 0.10
-71.38 299.36 412.28 0.46
-75.50 297.66 420.16 0.15
-79.29 295.52 430.01 0.05
-85.37 297.89 419.90 0.05
-91.00 299.20 414.51 0.05
-96.48 300.13 410.84 0.05
-102.26 301.44 405.52 0.07
-107.23 301.42 406.09 0.07
-112.26 301.47 406.36 0.07
-117.27 301.49 406.82 0.07
-122.31 301.57 407.05 0.07
-126.65 300.72 411.36 0.05
-130.50 299.35 418.01 0.02
-134.13 297.83 425.28 0.02
-137.91 296.57 431.44 0.01
-142.72 296.53 432.29 0.01
-145.97 294.84 440.34 0.01
-145.77 289.69 463.56 0.01
-143.88 283.19 492.68 0.00
-148.77 283.65 491.35 0.00
-154.17 284.55 488.16 0.00
-160.47 286.21 481.66 0.01
-171.71 292.18 456.45 0.00
-202.10 314.41 360.76 0.00
-246.57 347.34 218.91 0.01
-260.35 353.41 193.79 0.01
-273.57 358.72 172.09 0.01
-289.19 365.64 143.52 0.02
-304.07 371.68 118.85 0.02
-312.61 372.71 115.89 0.02
-321.83 374.20 111.02 0.02
-330.72 375.37 107.54 0.02
-338.47 375.71 107.70 0.02
-347.73 377.06 103.58 0.02
-355.79 377.55 103.19 0.02
-364.26 378.30 101.73 0.02
-372.60 378.92 100.86 0.02
-381.35 379.79 99.01 0.02
-389.27 380.11 99.51 0.02
-398.70 381.32 96.28 0.02
-407.52 382.14 94.78 0.02
-411.00 379.80 106.65 0.01
-396.44 367.18 161.82 0.00
-402.33 366.56 166.40 0.00
-439.57 383.32 98.13 0.01
-448.50 384.09 97.05 0.01
-447.94 379.75 117.42 0.00
-443.64 373.58 145.34 0.00
-470.25 383.64 105.75 0.01
-491.94 390.88 78.08 0.01
-502.63 392.36 74.41 0.02
-512.40 393.34 72.84 0.01
-522.09 394.25 71.68 0.01
-531.65 395.08 70.91 0.01
-542.19 396.33 68.43 0.01
-552.29 397.36 66.96 0.01
-560.96 397.69 68.40 0.01
-571.82 399.00 65.90 0.01
-582.78 400.33 63.36 0.01
-591.73 400.73 64.68 0.01
-598.22 400.05 70.42 0.01
-606.94 400.34 72.26 0.01
-617.11 401.25 71.67 0.00
-619.57 398.90 84.20 0.00
-627.28 398.78 87.79 0.00
-622.57 393.60 111.54 0.00
-608.67 384.84 149.35 0.00
-579.52 370.22 210.09 0.00
-559.55 359.58 254.90 0.00
-549.10 352.88 283.98 0.00
-523.96 340.70 334.35 0.00
-513.21 334.27 362.05 0.00
-517.46 333.61 367.20 0.00
-517.80 331.52 377.91 0.00
521.88 338.95 373.28 0.02
511.51 337.25 377.05 0.05
501.39 335.60 380.72 0.05
489.04 333.04 387.90 0.05
475.51 329.94 397.22 0.07
462.04 326.78 406.85 0.07
449.25 323.83 415.82 0.09
435.39 320.36 426.86 0.10
427.07 319.14 429.39 0.10
425.64 320.82 420.78 0.10
431.58 325.73 399.67 0.07
455.08 338.43 348.22 0.05
468.45 346.98 312.67 0.05
459.10 345.57 315.85 0.05
458.77 348.22 303.16 0.05
451.48 347.74 302.78 0.07
440.23 345.39 309.80 0.07
426.79 341.94 321.26 0.07
414.45 338.91 331.10 0.09
404.51 336.97 336.76 0.10
397.98 336.66 336.00 0.10
399.82 340.55 318.51 0.07
408.73 348.17 286.07 0.07
410.51 352.33 267.40 0.07
404.64 352.58 264.38 0.07
401.02 354.06 256.44 0.07
395.41 354.49 252.71 0.07
390.77 355.49 246.76 0.07
383.13 354.81 247.57 0.07
374.45 353.54 250.88 0.07
370.17 354.77 244.05 0.07
361.45 353.42 247.75 0.07
357.10 354.65 241.00 0.07
349.08 353.68 243.22 0.07
347.01 356.39 230.40 0.07
337.57 354.51 236.46 0.07
333.29 355.90 229.10 0.07
327.48 356.34 225.70 0.07
320.76 356.18 224.79 0.05
313.05 355.33 226.76 0.05
307.97 356.29 221.26 0.05
300.92 355.89 221.48 0.05
290.17 352.75 233.11 0.05
285.98 354.39 224.89 0.05
279.47 354.32 223.82 0.05
272.50 353.88 224.32 0.05
262.33 350.87 235.64 0.05
254.42 349.55 239.90 0.05
250.72 351.74 229.55 0.02
251.11 357.58 203.79 0.02
251.96 364.15 174.97 0.02
247.24 365.98 166.10 0.05
224.75 351.18 227.39 0.05
149.55 284.46 508.13 0.05
142.78 282.02 517.75 0.02
140.60 284.15 508.04 0.02
136.58 284.48 506.00 0.03
144.66 298.08 447.68 0.01
141.33 299.69 440.17 0.02
137.55 300.86 434.54 0.02
134.27 302.75 425.88 0.05
130.67 304.37 418.36 0.05
126.63 305.54 412.78 0.05
123.66 308.24 400.65 0.07
118.23 307.71 402.38 0.07
113.12 307.58 402.40 0.05
107.13 306.10 408.20 0.05
101.77 305.49 410.32 0.05
97.36 306.41 405.94 0.05
92.12 305.96 407.41 0.05
88.25 308.07 397.95 0.05
83.11 307.88 398.39 0.05
78.12 307.96 397.64 0.05
72.77 307.27 400.27 0.05
68.56 309.28 391.30 0.07
63.04 308.09 396.09 0.07
58.61 309.82 388.39 0.07
53.52 309.88 387.88 0.09
48.50 310.08 386.79 0.09
43.38 310.02 386.82 0.10
38.43 310.69 383.76 0.10
32.91 308.65 392.39 0.10
27.98 309.44 388.82 0.09
22.92 309.54 388.30 0.10
17.60 307.24 398.09 0.10
12.47 305.83 404.07 0.14
7.44 304.45 410.01 0.14
2.51 305.56 405.20 0.09
-2.45 307.20 398.14 0.11
-7.30 303.78 412.88 0.15
-12.21 303.66 413.42 0.14
-17.18 304.18 411.28 0.10
-22.15 304.62 409.47 0.09
-27.04 304.30 410.95 0.09
-31.96 304.29 411.15 0.09
-36.72 303.55 414.45 0.07
-41.47 302.92 417.35 0.07
-46.36 302.94 417.51 0.07
-51.00 302.12 421.23 0.05
-55.38 300.76 427.33 0.05
-60.47 301.46 424.57 0.03
-65.84 302.79 419.19 0.05
-72.33 306.45 403.76 0.20
-75.87 303.32 417.52 0.09
-78.91 299.56 434.03 0.02
-83.98 300.10 432.07 0.05
-89.26 300.98 428.70 0.05
-95.12 302.74 421.60 0.05
-100.33 303.29 419.71 0.05
-105.38 303.53 419.16 0.05
-110.45 303.77 418.65 0.05
-115.22 303.57 420.04 0.05
-120.66 304.29 417.50 0.05
-126.55 305.57 412.63 0.05
-129.88 303.51 422.03 0.05
-133.50 301.93 429.34 0.02
-138.75 302.40 427.98 0.02
-142.75 301.41 432.85 0.02
-146.44 300.14 438.95 0.01
-145.94 294.52 463.45 0.01
-139.22 282.82 513.67 0.02
-142.53 281.86 518.39 0.02
-146.75 281.81 519.28 0.02
-160.19 290.48 483.43 0.01
-171.47 296.66 458.14 0.00
-196.61 314.91 382.19 0.01
-213.25 324.81 341.52 0.05
-252.86 353.66 221.45 0.01
-266.60 359.71 197.32 0.01
-286.17 370.17 154.82 0.02
-299.19 375.00 136.04 0.02
-309.70 377.66 126.39 0.02
-318.57 378.98 122.36 0.02
-327.60 380.35 118.22 0.02
-336.69 381.71 114.20 0.02
-344.75 382.28 113.45 0.02
-354.14 383.76 109.02 0.02
-363.38 385.06 105.38 0.02
-371.04 385.27 106.28 0.02
-378.79 385.53 107.03 0.02
-388.88 387.28 101.72 0.02
-396.75 387.56 102.47 0.02
-404.63 387.84 103.27 0.02
-408.29 385.58 114.52 0.01
-391.20 371.11 175.57 0.00
-399.69 372.01 173.83 0.00
-435.42 388.47 108.96 0.01
-445.83 390.14 104.34 0.01
-442.14 383.95 131.57 0.00
-442.36 380.10 149.33 0.00
-467.01 389.44 113.90 0.00
-491.10 398.19 81.11 0.01
-502.16 399.91 76.66 0.01
-511.72 400.82 75.54 0.01
-520.66 401.39 75.82 0.01
-530.30 402.28 74.88 0.01
-543.25 404.76 67.67 0.01
-551.75 405.04 69.33 0.01
-560.16 405.27 71.19 0.01
-571.72 406.95 67.36 0.01
-580.78 407.45 68.30 0.01
-590.23 408.10 68.68 0.01
-602.00 409.77 65.13 0.01
-610.84 410.11 66.86 0.01
-623.11 411.94 62.82 0.01
-630.10 411.44 67.92 0.00
-632.00 408.78 81.35 0.00
-638.46 408.11 87.13 0.00
-644.35 407.23 93.76 0.00
-648.38 405.59 103.27 0.00
-638.82 398.49 133.61 0.00
-615.08 385.88 184.75 0.00
-575.57 367.33 258.07 0.00
-553.11 355.88 304.16 0.00
-527.34 343.41 353.84 0.00
-513.75 335.89 384.70 0.00
512.40 341.19 387.83 0.05
502.73 339.67 390.82 0.05
498.17 340.17 386.45 0.05
491.20 339.70 385.65 0.05
484.01 339.14 385.28 0.05
475.82 338.13 386.57 0.05
467.50 337.06 388.19 0.07
456.66 334.87 393.96 0.07
439.76 330.01 409.80 0.09
424.29 325.65 423.92 0.10
414.73 323.80 428.75 0.10
409.02 323.64 427.27 0.10
409.64 326.36 414.97 0.09
422.16 334.66 381.52 0.07
439.97 345.65 337.67 0.07
439.20 348.14 326.04 0.07
433.95 348.52 322.39 0.07
429.41 349.27 317.39 0.07
417.51 346.39 326.29 0.07
409.63 345.45 327.84 0.07
399.45 343.31 334.07 0.09
389.60 341.26 340.01 0.10
382.55 340.65 340.48 0.10
381.60 343.25 328.48 0.09
388.55 350.23 299.41 0.07
391.16 355.04 278.73 0.07
384.29 354.70 278.14 0.07
380.82 356.28 270.05 0.07
372.45 355.07 272.94 0.07
367.67 355.94 267.70 0.07
361.54 356.04 265.51 0.07
356.85 357.02 259.89 0.07
348.60 355.81 262.96 0.07
344.57 357.23 255.63 0.07
337.85 356.98 254.95 0.07
331.50 356.95 253.42 0.07
323.85 356.06 255.36 0.07
319.01 357.05 249.86 0.07
312.54 356.94 248.76 0.07
305.54 356.45 249.26 0.07
299.95 356.97 245.70 0.07
292.08 355.82 248.89 0.07
286.39 356.26 245.70 0.07
281.00 356.96 241.53 0.07
270.42 353.58 253.84 0.07
260.91 350.90 263.41 0.05
256.42 352.28 256.61 0.05
255.13 356.43 238.51 0.05
248.64 356.27 237.96 0.05
245.28 358.89 226.09 0.02
244.66 364.17 203.42 0.02
241.02 366.88 191.19 0.02
218.16 351.12 254.51 0.03
149.25 288.47 510.13 0.05
143.14 286.66 516.89 0.05
139.33 287.14 514.21 0.05
137.00 289.28 504.78 0.03
145.02 303.25 446.70 0.01
140.16 303.11 446.57 0.02
136.13 303.97 442.39 0.02
133.83 307.09 428.86 0.05
129.46 307.72 425.67 0.05
125.76 309.32 418.44 0.05
122.95 312.31 405.51 0.07
117.83 312.15 405.60 0.07
112.13 311.11 409.38 0.07
106.26 309.69 414.73 0.05
101.44 309.90 413.40 0.05
96.18 309.32 415.33 0.05
91.62 310.01 412.03 0.05
87.44 311.52 405.34 0.05
82.68 312.01 402.94 0.05
77.69 312.06 402.33 0.05
72.75 312.21 401.39 0.05
68.12 313.22 396.83 0.07
63.00 313.02 397.36 0.07
58.88 315.74 385.76 0.10
53.86 316.08 384.07 0.10
49.06 317.26 378.90 0.12
43.90 317.25 378.73 0.15
38.86 317.77 376.36 0.18
33.18 315.13 387.23 0.15
28.07 315.09 387.27 0.15
22.87 314.28 390.50 0.14
17.65 312.88 396.28 0.14
12.55 311.89 400.32 0.15
7.46 309.82 408.95 0.15
2.52 310.80 404.83 0.10
-2.45 312.60 397.29 0.15
-7.34 309.36 410.84 0.15
-12.30 309.72 409.40 0.14
-17.18 309.12 412.00 0.11
-22.07 308.94 412.80 0.10
-26.98 308.93 412.97 0.14
-31.86 308.67 414.20 0.10
-36.56 307.65 418.60 0.10
-41.36 307.37 419.94 0.07
-46.04 306.68 423.05 0.07
-50.38 304.99 430.32 0.05
-54.84 303.92 435.00 0.02
-60.31 305.88 427.09 0.09
-64.26 303.62 436.82 0.05
-71.73 310.05 410.32 0.15
-74.06 304.23 434.91 0.07
-77.58 301.60 446.20 0.02
-82.80 302.58 442.51 0.02
-88.59 304.57 434.64 0.05
-93.59 304.92 433.58 0.05
-99.41 306.64 426.91 0.07
-105.19 308.13 421.21 0.07
-109.18 306.73 427.52 0.07
-114.66 307.64 424.26 0.05
-119.13 307.08 427.11 0.05
-123.04 305.77 433.11 0.02
-129.47 307.86 425.07 0.05
-134.36 307.86 425.70 0.05
-139.44 308.10 425.34 0.05
-141.85 305.19 437.98 0.02
-146.14 304.61 441.05 0.02
-143.85 296.85 473.65 0.02
-135.91 283.60 528.75 0.03
-141.00 284.53 525.57 0.02
-145.57 284.89 524.81 0.02
-157.72 292.58 494.02 0.01
-166.00 296.20 479.98 0.00
-196.41 319.97 383.77 0.02
-204.74 322.73 373.51 0.05
-240.55 349.32 266.21 0.01
-263.55 363.71 208.89 0.01
-281.20 372.95 172.65 0.02
-299.13 381.99 137.40 0.02
-307.73 383.22 133.85 0.02
-314.82 383.24 135.28 0.02
-325.29 385.81 126.46 0.02
-333.32 386.45 125.45 0.02
-341.66 387.30 123.65 0.02
-350.47 388.44 120.73 0.02
-357.33 388.20 123.45 0.02
-368.73 391.05 113.80 0.02
-375.98 391.01 115.76 0.02
-385.63 392.55 111.45 0.02
-395.61 394.25 106.60 0.02
-400.16 392.44 115.72 0.02
-403.01 389.66 128.73 0.01
-382.89 372.96 196.79 0.00
-394.22 375.69 187.92 0.00
-431.30 393.49 119.73 0.01
-444.47 396.84 108.72 0.01
-438.36 389.11 141.23 0.00
-436.95 384.26 162.40 0.00
-462.11 394.21 125.72 0.00
-490.58 405.64 83.51 0.02
-500.50 406.81 81.42 0.02
-508.39 406.88 83.63 0.01
-517.92 407.80 82.63 0.01
-530.48 410.23 75.84 0.01
-541.44 411.79 72.53 0.01
-550.14 412.18 73.73 0.01
-560.35 413.30 72.19 0.01
-568.46 413.38 74.71 0.01
-580.15 415.16 70.82 0.01
-590.98 416.49 68.70 0.01
-601.90 417.81 66.67 0.01
-610.72 418.15 68.42 0.01
-619.59 418.50 70.19 0.01
-625.46 417.51 77.06 0.00
-636.38 418.76 75.54 0.00
-642.29 417.81 82.29 0.00
-652.53 418.73 82.10 0.00
-662.01 419.31 83.28 0.00
-661.63 415.76 99.76 0.00
-663.27 413.13 112.79 0.00
-657.78 407.65 136.26 0.00
-648.79 400.90 164.29 0.00
-570.21 366.58 292.66 0.00
-569.14 363.56 306.51 0.00
501.39 342.57 404.61 0.05
497.14 343.18 399.95 0.05
486.17 341.02 405.14 0.05
479.32 340.54 404.42 0.05
473.76 340.58 401.85 0.05
469.86 341.34 396.75 0.07
464.48 341.48 393.92 0.07
458.26 341.25 392.41 0.07
450.73 340.43 393.10 0.07
442.52 339.29 394.98 0.07
426.54 334.55 410.01 0.09
412.55 330.63 422.25 0.10
401.01 327.74 430.76 0.10
394.69 327.25 430.53 0.10
396.26 330.57 416.38 0.10
406.26 338.09 386.58 0.07
411.20 343.32 365.20 0.07
405.39 343.29 363.28 0.07
403.00 345.00 354.90 0.07
399.01 345.93 349.42 0.07
394.70 346.72 344.47 0.07
387.26 345.88 345.69 0.09
380.60 345.43 345.47 0.09
372.91 344.39 347.51 0.09
368.76 345.30 342.23 0.09
370.20 349.41 324.85 0.07
371.88 353.79 306.40 0.07
366.73 354.32 302.57 0.07
360.58 354.27 300.96 0.07
357.38 355.99 292.60 0.07
351.51 356.14 290.30 0.07
344.92 355.84 289.75 0.07
340.52 356.94 283.83 0.07
333.85 356.58 283.54 0.07
329.73 357.92 276.79 0.07
322.75 357.36 277.36 0.07
316.10 357.02 277.13 0.07
310.79 357.60 273.32 0.07
302.92 356.36 276.65 0.07
297.07 356.56 274.41 0.07
292.23 357.53 269.22 0.07
285.95 357.43 268.21 0.07
277.50 355.63 273.89 0.07
269.82 354.37 277.51 0.07
261.54 352.56 283.33 0.07
257.19 353.94 276.64 0.05
255.08 357.31 262.14 0.05
253.22 361.05 246.19 0.05
247.39 361.44 243.45 0.05
241.88 362.13 239.57 0.02
238.28 364.67 228.35 0.02
232.10 364.83 226.60 0.01
215.52 354.63 266.01 0.02
149.77 293.35 508.65 0.02
143.52 291.33 516.02 0.05
137.83 289.78 521.48 0.05
135.96 292.44 510.21 0.05
143.27 305.96 455.60 0.02
139.97 307.63 448.28 0.02
136.94 309.77 439.05 0.05
132.58 310.35 436.14 0.05
126.94 309.25 439.91 0.02
124.77 312.89 424.72 0.05
122.72 316.98 407.71 0.07
116.91 315.79 411.92 0.05
112.16 316.14 410.00 0.07
106.45 314.94 414.33 0.05
101.00 314.06 417.38 0.05
95.93 313.80 417.95 0.05
91.56 314.86 413.26 0.05
86.58 314.80 413.09 0.05
81.94 315.45 410.05 0.05
77.40 316.39 405.89 0.05
72.58 316.85 403.70 0.05
67.75 317.28 401.61 0.05
63.11 318.37 396.91 0.07
58.43 319.45 392.25 0.09
53.81 321.05 385.52 0.10
48.95 321.98 381.53 0.10
43.66 321.44 383.50 0.11
38.61 321.83 381.71 0.15
33.15 320.07 388.70 0.11
